# 3D point list with one line of data per point:
#   POINT3D_ID, X, Y, Z, R, G, B, ERROR, TRACK[] as (IMAGE_ID, POINT2D_IDX)
# Number of points: 390, mean track length: 4.0574771108850456
3181 -1.250505296468756 4.802949590715671 1.5035190708133859 117 110 81 0.065710693683517993 12 4228 3 6653
3182 -1.1360785601454608 4.8661267245148228 1.5191400715542169 111 95 69 0.22543687724245617 2 6573 3 6698 6 5696
3183 -0.76266528586730531 1.7453566214065193 1.347865105494815 221 206 139 1.8541397376159698 2 6934 3 7003 5 3226 8 8441
3184 -0.17498448276623468 1.9047370066164468 1.5271146853125706 183 163 94 1.1428296717229185 44 6815 3 7079 4 5478 5 5514 6 3853
3185 -0.54816729905069761 2.0199788456717731 1.5416842208506847 221 197 123 1.0232441499872205 2 7137 3 7132 4 6891 5 6930 6 3896
3186 0.24945533448429785 2.3646266727245466 1.5294692620059378 248 225 255 1.585625606940307 2 7246 3 7194
3188 -2.7073547394066462 1.288201165010707 2.9250412446283489 172 163 132 0.80092917771699168 2 8446 3 7256 4 5642
3189 -1.0327738349258972 2.4998259367753546 1.390425797010713 100 51 47 0.5746786946537219 3 7260 4 5576
3190 -1.0511016878867949 2.5102950945934182 1.3872916601285867 237 216 158 0.55283815115348467 3 7266 4 3446
3191 -3.0560662930971985 1.4846723633980226 2.7543144452237867 170 156 129 0.80077890035929777 9 11144 10 9706
3192 0.39165103372445498 2.7862253683060296 1.5333663749471012 188 70 80 0.92738288120288526 2 8598 3 7316 42 4611 43 8557
3194 1.2319150359066466 2.9517350021626565 1.7156420712342879 135 154 193 0.99303561438946852 44 5810 3 7360 5 3468
3195 1.3966542095241146 2.9711274984042473 1.7753100141708107 2 12 37 0.58012195534728539 2 7408 3 7365 4 5651
3196 -0.88732751300653145 2.8281689247555244 1.5878398676075764 146 129 99 0.74723504974034294 2 5226 3 7366 5 5705
3197 -1.8860197858915899 2.2064118996665245 2.5829977079490458 50 23 32 0.50266071902444309 2 8568 12 7852 3 7372
3198 1.3448624970501128 2.9990795295517665 1.788733812708986 146 158 173 0.80249977225103841 2 5276 3 7379 4 3597 5 471
3199 1.2946125342659223 3.0142563178340134 1.7910924138968538 149 160 180 0.72970138726852518 2 7417 3 7385 4 5667 5 3511
3200 1.2942543039997461 3.0138684838184941 1.7906057827344284 149 160 180 0.75363639589369835 2 7418 3 7386 4 5668
3201 1.3725605711738444 3.0234438805574482 1.8240763776524773 163 188 208 0.46210353638226653 2 7425 3 7392 4 5672
3202 1.117144815811393 2.9995009602582523 1.850072066476675 106 108 107 0.80021471560518798 2 5291 3 7401 4 5679 5 5663 6 4138 7 2440
3203 1.7206359334480557 2.9352287903646506 2.5346245852627827 208 196 170 1.5995606808802396 1 10835 3 7452 34 10102 42 7990 31 10225 37 5922 11 7523
3204 0.25814436370052807 3.2835676334389796 1.6847545633921963 238 208 144 0.81252141320901594 2 7483 3 7485 5 3697 4 3790
3205 0.52804059831763306 3.3505372554959489 1.6469002323469772 233 225 162 0.43086164698439888 2 7504 3 7490 4 5763 6 4256
3206 0.52804059831763306 3.3505372554959489 1.6469002323469772 233 225 162 0.43086164698439888 2 7503 3 7491 4 5762 6 4257
3207 0.36544758725866677 3.384930177675062 1.6956080123529862 168 136 75 0.60069674813930551 2 7522 3 7519 4 7094 5 5771
3208 -1.6305414958567215 3.0359264614840242 2.2342771440346372 183 176 142 0.91713184466519482 12 9266 3 7535 5 5915 6 6837 7 10940
3210 -0.4741297853481295 3.5160343920344186 1.3358372793775293 194 181 126 0.4553614489793929 2 7561 3 7550 4 5817
3211 -2.1387881000853013 3.274835068556849 2.0926800820168672 128 116 76 0.97591155751782299 1 10131 3 7593 34 5420
3212 1.4973136536382088 3.636296752969304 2.2068408101552239 141 136 104 1.3573344980428699 23 8550 3 7601 34 8975 42 7109
3213 1.1811627066812667 3.6202619423672555 2.1849351489634299 131 126 94 0.53060911778318831 44 7941 3 7608 34 9679
3214 -0.75339148247094845 3.7813073581820809 1.9648930422810307 193 185 139 1.1117531212840888 12 9378 3 7709 4 8061 5 7999
3215 -1.277779528292436 3.7443647444176085 1.9402786804058869 203 191 153 0.54059360504542608 2 7634 3 7713 4 6028
3216 -1.2885779465508582 3.7720736194887725 1.9245578163687977 158 145 110 0.81099121604093716 1 10222 3 7720 4 7279 5 6030 6 8390 7 11042
3217 -2.1275334008833409 3.7035671900612166 1.9024660041931962 183 172 142 0.67306184296153826 2 7624 3 7724 4 8092 6 8461
3218 -1.9615031945799613 3.7909463687736404 1.8764187248328732 168 154 127 0.37418035425476526 23 6294 3 7746 4 7319 6 7146
3219 -0.070476980629051944 3.9766639746540986 1.928020095134074 190 175 136 1.1740473275045455 23 8574 3 7757 4 6019 34 7717
3220 -0.87799527213974327 3.9229303735973162 1.8902201224687891 192 183 140 0.92816929425944394 23 8500 3 7769 4 6062
3221 0.94289858913911262 4.1029882752576325 1.9529984205610305 144 132 106 1.8393696332078837 23 8699 44 6275 3 7773 7 9542 12 10166 33 8767
3222 -0.83629397569582276 3.945375895790201 1.8825402259953343 143 131 91 0.30022298587499813 2 8815 3 7780 4 7297
3223 -1.8079431654989631 3.9189774290643378 1.8319429651475989 134 128 91 1.5201122308542885 23 8438 3 7800 4 6156 5 6154 6 8474
3224 0.49648546406634136 4.1437565367787492 1.9014797468172233 172 163 129 0.98024722786988649 44 7364 3 7802 40 7558 33 8633
3225 1.022274363384944 4.195073962265206 1.9148502610311071 200 194 169 0.54775610736211144 44 7411 3 7803 34 7956 40 7673
3226 -1.7240713620030426 3.9419147238394792 1.821800534560899 183 173 137 0.50115685582698966 12 8301 44 6081 3 7808
3228 0.32912556045770391 4.1485964095977739 1.8949941499802743 145 131 102 1.1469233663478449 2 7793 3 7821 34 7845 41 4289
3229 -1.1890319886964493 4.0075660750724493 1.8280172390233664 109 96 62 0.75719864527624492 12 9462 3 7825 6 8424 13 446
3230 -1.4854957103746373 4.0327182342614076 1.795464309586716 196 185 155 0.94851927274221148 1 10277 3 7850 5 7306 4 7366 6 7127 34 5738
3231 -0.11368449721007101 4.1909784829242005 1.8282888664429182 182 164 125 0.56425134270915178 44 7363 3 7864 34 7793 5 6022 33 8493 6 6911
3232 0.85448688155255192 4.3166942472141834 1.8548910133104044 176 169 143 1.3610685790584665 2 7876 3 7875 40 7697
3233 -0.030408948164598298 4.246747506123068 1.8080792806878916 197 180 156 0.27075750341467064 44 6314 3 7878 34 3326
3234 -2.1270042075375555 4.0497905543790802 1.745884944154821 166 159 137 0.59899974239870357 12 8342 3 7879 4 7420 6 8548
3235 0.56571738363107216 4.3206131314121903 1.8264451447688086 192 185 157 1.1235440587308896 44 7454 3 7883 4 6105
3236 0.80054499606978546 4.3452510696228455 1.8433661264131136 100 87 55 1.5028982489582932 2 7897 3 7884 34 7985
3237 0.45597467631580219 4.333893368165981 1.8033913411035694 194 189 159 0.8226584855376684 2 7890 3 7897 4 6119
3238 -1.6519483235199746 4.1348150201555267 1.738125565404528 180 176 141 0.47447536735012374 2 7788 3 7898 4 7411 5 7340 6 8501
3239 -1.5016417742228689 4.1602095505008414 1.7389020294890638 156 147 118 0.290023465494685 2 7803 3 7905 4 6252
3240 -0.89640227795628746 4.2212311776972946 1.7550299022499789 137 127 102 0.20592221291306725 12 8409 3 7910 4 6206
3241 -0.20032618523155749 4.3277576185127842 1.7585587040831288 200 190 154 0.33210474957948732 12 6618 3 7924 4 4528
3242 0.053093726410121306 4.3652447981163434 1.7643310102535616 89 79 45 1.0467650527036254 23 8760 3 7931 5 4220
3243 0.012888481521829476 4.3746416970089133 1.755897657333348 102 93 56 0.79082193200196238 2 7920 44 7456 3 7939
3244 -0.84579878414579035 4.2977601138750794 1.7233490825437219 97 83 46 0.93278560723192339 23 6696 3 7940 4 6245 5 4372 6 7093 40 5694
3245 -0.024843593093175353 4.3880382377455538 1.7441732782924779 101 87 52 0.039539537986223901 2 7933 3 7944 4 4546
3246 0.37382353830648607 4.4842029160429018 1.7512930533814646 192 193 162 1.2055292533740043 23 6974 3 7977 5 4222
3247 -1.2205266701681594 4.3405104709359321 1.6714403539051093 196 186 158 0.34879059878815016 12 6641 3 7978 5 6227
3248 -0.74434992358444085 4.4063174580254216 1.6796264719361382 191 181 146 0.34756629610576117 44 7435 3 7995 4 6306 5 6178
3249 -0.20390786705247083 4.4589939473436111 1.7081471866299034 135 131 106 1.0241230913830044 44 6451 3 7996 4 6256 5 4318 41 2358 33 5593
3250 -1.4487918193131524 4.3691729515871049 1.6439599410668673 189 180 151 0.59575928408678003 2 7911 3 8006 4 6395
3251 -0.82510414676220112 4.4587549827331747 1.6578383296186316 196 187 157 0.73616700098618137 2 6288 44 6412 3 8033 4 7471 41 2235
3252 -1.511464572185967 4.405540702424311 1.6304842488527704 181 174 149 0.52359623426130919 1 7416 12 6704 44 6334 3 8041 4 6437
3253 -1.3487894797255819 4.426402777758506 1.631713962591649 159 151 112 0.54209457345495871 44 6359 3 8044 4 7507 5 6320
3254 -2.1240831829156317 4.3587759457449975 1.6100617928308654 165 160 140 1.0749268514572434 12 8459 3 8050 4 7555 5 6454 6 8658
3255 -0.88343818096594173 4.4874048916891605 1.6380027469858449 149 145 110 1.0397024345393413 23 6805 3 8061 4 7489 5 6241
3256 -0.88558014048387745 4.4883346002482707 1.6306413644505695 149 145 110 0.72253844545420998 1 9253 12 6760 3 8062 4 7488 5 6242
3257 -1.4258236018582966 4.439737313814077 1.6112793776530099 171 160 126 0.45832883229349436 2 7965 3 8064 4 7524
3258 -1.4374952081470951 4.4547176023428579 1.6128551558539781 108 94 65 0.53607895957466001 2 7977 3 8071 4 6466 5 6354 6 7308
3259 -1.4334421400696638 4.4744907643047478 1.6045845683790851 187 172 151 0.24999871698776055 12 8510 3 8082 4 7537
3260 -0.61469811237551775 4.5548325618811916 1.6238161145255043 146 141 112 0.8552361335650781 2 8040 3 8085 4 7494 5 6211
3261 -1.115392594804919 4.532723191059655 1.5988726682010519 181 175 143 0.63885137330899433 12 6798 44 6443 3 8104
3262 -0.81022408853194428 4.618200970690058 1.5912192597560491 155 150 120 0.54105428109525344 2 8074 3 8145 4 6491 5 6309
3263 -2.1606086045182376 4.5155560785770303 1.5350616475549974 148 141 113 0.97956987379725846 3 8158 4 6636 34 5876 5 6539 6 7626
3264 0.10492545857552281 4.7303754746729325 1.7177466966166308 174 167 138 0.9586721197747794 2 9088 3 8160 4 7503
3265 -1.1416250184076895 4.6160787996543657 1.5618203665844055 178 169 140 0.60576510741781131 44 6493 3 8168 4 7564
3266 -1.7632416608887018 4.5759812175723518 1.5348339756007776 103 88 57 0.40305095998562313 2 9022 3 8184 4 7599 12 6843
3267 -0.15644387891950917 4.7325764289268948 1.6686397203018628 191 189 177 0.5459285927332922 2 8127 12 6901 3 8185
3268 -0.30751829384819523 4.7741785396778038 1.6538921733924217 162 153 124 2.581707673359364 2 8146 3 8230 5 4590
3269 -1.5852266854614865 4.7654908407602514 1.4709344190137763 115 108 83 0.5904566636531885 2 8152 3 8290 4 7681 5 6553
3270 -1.9887611127490301 4.7305565403689949 1.4579087834925615 99 89 64 1.3766988041531962 12 6948 3 8293 4 7710 2 9095 6 8804
3271 -1.4160472199130345 1.6953263315031404 1.6946877121962289 7 13 6 1.7383881615814811 2 7014 3 8621 4 6889 5 6934 6 9119 8 10779 9 10713 10 8186
3272 -0.5249004915463662 2.0160236833757526 1.5330526205860839 156 136 68 0.66291524165622329 2 8443 3 8634 4 7844
3273 0.076445030640860348 2.3937280981635083 1.447566469443033 174 89 96 0.67714050977424378 2 9301 3 8669 4 5529
3274 2.0343698053210915 1.9476050072119524 3.0116058176451848 199 192 164 1.3380822535376382 2 9814 3 8709 20 11511
3275 0.10390969469305152 2.7254539649237763 1.4332787216608405 193 101 110 1.4245375250858618 2 8588 3 8715 4 5593 42 4551
3276 -1.2311685500478804 2.7188395846716125 1.5357578832662286 129 122 75 0.90044542362503743 2 7349 3 8747 4 7000 5 7026
3277 1.3478579770155381 2.9723410754628068 1.7481303931368444 148 181 225 0.8707654580014772 2 8633 3 8760 4 6997 5 5629
3278 1.1157107711349217 2.9614534738269485 1.7838054648123662 17 19 33 0.52802166696532171 2 8634 3 8766 4 7005 5 7007 6 6500
3279 1.2545919453736152 3.0049860330948204 1.7682583984822788 15 26 42 0.92664187453307112 2 8643 3 8771 4 7007 5 5643
3280 1.1744300627503657 3.014141441814024 1.8137449826792988 127 146 155 0.45146576300761365 23 6228 3 8781 4 7026 5 5652 6 6507
3281 1.1018435014629724 3.0369971780739746 1.9493809295376356 42 46 47 0.32433268044864416 44 7067 3 8805 4 7053
3282 0.34019069634522048 3.3064081535260939 1.6482741000273904 226 202 141 0.87821515922213156 2 7495 3 8838 4 7067 5 5744 6 6588 7 9407
3283 -1.6267274631223623 2.84687710372887 2.3156926504874917 145 133 111 1.2564585045055805 12 10013 3 8842 7 12216
3284 -1.7865702685471552 2.8564261134218221 2.3037859555688409 169 157 135 1.342875939629514 1 10784 3 8843 4 7136 5 7148
3285 -2.5826402832662532 2.8060119958547181 2.2584333700383614 107 100 81 0.5179581515229752 2 8631 3 8848 5 7171
3286 -2.6274138042538464 2.8610782007555882 2.2430877033375851 120 112 89 1.6303641048594637 1 10072 3 8857 5 7182 6 8351 7 11779 8 11034
3287 -1.8001219060815112 3.0641246229345684 2.2072889838922412 183 172 140 0.97209219430089711 12 10031 3 8879 4 7163 5 5930 6 8319
3288 -1.6310836642235342 3.187686503556769 2.1673097306873581 183 172 140 0.75858077106766741 2 8688 23 9566 3 8910 6 8322 7 11755
3289 1.5137283738771254 3.5469890239067143 2.2469754282693195 207 206 178 1.1260961263978984 23 9692 3 8923 34 9690 7 10774 40 9919 41 8215 42 7631 38 5238
3290 -1.4632391468223875 3.2914755898468901 2.1266427680076641 177 161 125 1.1158634140047301 23 9584 44 7092 3 8928 6 6872 7 10969 12 9293
3291 -1.7493640657917764 3.3080914874914029 2.1089261287698711 163 154 115 1.1128019367085376 44 7093 3 8935 4 7200 7 11776 8 11065
3292 0.87910791265330257 3.626360153083263 2.1604322498130717 202 190 152 1.3576645674576573 23 9680 3 8946 41 7690 33 9852 5 5867 21 4972
3293 -2.4964286868939394 3.3424341800599167 2.0439442392060645 162 151 121 1.2665971111033507 44 7891 3 8949 5 8030 6 9938
3294 1.1255279755104228 3.9913286512678492 2.0121773048007219 187 186 155 1.2457425055873002 12 9442 23 9776 3 9009 34 9752 7 9494
3295 0.95259928040428932 4.0411174452926231 1.9605417431384708 148 137 105 1.7502014031657822 2 9517 3 9028 34 9750
3296 -2.3972733556436197 3.7416066070412879 1.8597475287721796 170 159 129 0.9255879193407085 3 9034 4 7331 5 7319 7 11879
3297 -1.0572296067515055 3.8724746963997987 1.9104697816617529 197 189 152 0.74264138286327919 23 9656 3 9042 34 8843
3298 -1.9921128173592069 3.8001443272635966 1.8492761024425213 139 127 90 0.39886528919755321 2 8779 3 9045 4 7323
3299 -0.98971331933796414 3.9121004609511325 1.8849257764444245 204 194 158 1.2047373347647237 12 10130 23 8493 3 9050 4 7296 5 7252 6 8386
3300 -0.59222925127605208 4.0198571212695002 1.867400884335271 207 198 157 0.73395421500835278 12 9464 3 9067 4 7303
3301 -0.2340181534746098 4.0923017409973159 1.8647566093077066 203 189 152 1.5565842903653366 23 9744 3 9077 4 7301 5 6002 6 8337 40 8630 33 8465
3302 -0.0031433341450309016 4.1970626884738991 1.8297323775865584 134 120 81 0.24530612143832739 23 8665 3 9087 4 7310
3303 -1.9222628462337716 4.0877433997472679 1.7456538796229624 178 166 144 0.56702452684951454 44 7277 3 9111 5 8093 6 9407 7 11894
3304 0.42046926326097067 4.3153483210538841 1.8156744201627966 104 89 60 0.91809523510380642 23 9828 3 9114 4 7320 5 7222 33 8625
3305 0.3350661554847284 4.3501178853074682 1.7998024542855509 203 197 168 1.1524445495945999 2 9571 23 9830 3 9123 34 9051
3306 -1.0118057200036965 4.246179138958043 1.7365528731810611 158 135 101 1.1634931194088061 12 9519 3 9127 13 492
3307 0.31090461461233498 4.380477143429073 1.7826579274141727 176 170 138 1.7571611656375878 23 8781 44 8093 3 9132 4 7344 40 8762
3308 -0.66177287068638857 4.4151761819089579 1.6844372771910761 101 91 55 0.3472982341104639 2 8955 44 7448 3 9148 4 7440 6 8443
3309 0.88253445303612188 4.6980077977316759 1.8566305133041221 111 104 85 0.65516536400960945 2 9061 12 6817 3 9174
3310 -0.67515580167081768 4.5768881526112093 1.6180724043494918 197 196 175 0.57396449630523383 23 8791 3 9190 4 7506
3311 -2.0551309463759755 4.4918026183388626 1.5538424640388799 156 141 118 0.70887518622026635 2 8986 3 9214 4 8266
3312 -1.4491943282574009 4.5510003506226759 1.5755537783426554 170 162 126 0.43652381309880567 2 9007 23 8713 3 9217
3313 -1.9844937954595341 4.5178116793269618 1.5445547414232055 169 158 132 0.31587644606378823 2 8011 3 9223 4 7598 5 6494 6 8698
3314 0.13795766533692405 4.722957910020968 1.7232292491278816 164 154 129 1.3498460846503766 44 7606 3 9224 4 7498
3315 0.34413051767690095 4.7759951686180786 1.7826686427554108 176 166 135 0.93013374248261815 2 9103 3 9235 4 8198
3316 -1.471195837238398 4.6064722206270892 1.5388465412129024 173 168 136 1.039135080001564 2 9036 12 9602 3 9245 5 7444
3317 -1.0928792307822652 4.6417716724550973 1.5555536918784014 173 162 136 0.37117365254771589 2 9049 3 9246 4 8249
3318 -1.3544497285827639 4.6309647685308031 1.5392540675424995 190 179 159 0.70519407407101031 2 9045 3 9259 4 8258 34 7806 23 8770 5 7437 6 9446
3319 0.22131076621917106 4.8140292157920452 1.771716220799288 85 72 45 1.6557840929201209 2 9126 3 9270 4 8219
3321 -1.7250873238819835 4.6814045350635327 1.4925600567924102 96 86 61 1.378951573805222 2 8108 3 9294 4 8306 5 7517 6 8703 12 8609
3322 -1.5730111992776012 4.780035576013022 1.4733440297344604 151 145 119 0.92927863362792407 2 9128 3 9339 4 8327 12 8644 5 7536
3323 -0.53755897708347322 1.9595907237504668 1.4527115596112019 226 219 162 1.4743495738076193 44 7732 3 9564 4 6879
3324 1.2199290145459278 2.987942464797801 1.7543252937161258 141 165 196 0.41426460323546299 44 8334 3 9668 4 7921 5 7852
3325 1.2375694151558081 3.0198497744370911 1.7893873681693968 121 147 180 0.76753593616427485 44 7880 3 9676 4 7923 5 7011
3326 -0.81011275916719194 2.9634099106518512 1.6131273857934028 169 179 223 2.7110595953374585 2 8637 12 10528 3 9681
3327 -2.0175364470231196 2.5932925463599199 2.3540338826023115 57 27 29 0.70198299023129229 2 8608 3 9688 4 7960
3328 -1.9924100795477362 2.8798189394550739 2.2871387280995568 177 163 134 0.28426422162090492 44 8324 3 9696 4 7982 5 7156
3329 -2.4790399934857712 2.85536868446099 2.2630995433247665 138 128 103 0.63259132837199028 2 9897 3 9699 4 8536
3330 -1.2222820998210904 2.9873476710578628 2.2832205527603393 117 102 81 1.58451598401335 3 9701 4 7976 5 7142 6 9213 7 12209
3331 -2.2347542251049166 2.9189112987917105 2.2444584823628877 162 151 122 0.88041803174073185 2 9902 3 9705 4 8537 5 8473 6 9885
3332 -1.7472544427182997 3.0500138399982522 2.2206462607553332 171 160 128 0.85150081027513169 44 7863 3 9711 4 7997
3333 -2.4531775360298047 3.4985640496587642 1.9763776976170766 174 163 133 0.71221140830879304 2 9927 3 9764 4 8963 5 8520 6 10309
3334 -2.4508569240561422 3.5024757565051647 1.9690558911677818 174 163 133 1.4820411989082982 12 10563 3 9765 4 8964 5 8521 6 10310 13 6418
3335 1.3337531411803636 3.9204073551509246 2.062197759998786 163 154 123 1.5657168563042898 44 8745 3 9776 41 8266 42 7600 38 5165
3336 -2.0707693068295487 3.6341527297746441 1.9312097460497908 159 149 113 1.8068344808750119 2 8733 3 9779 4 8077 7 12300 1 10884
3337 -0.9743036525548896 3.7409355164897229 1.9584655669047439 122 110 72 0.48289701071673213 2 8763 3 9782 7 11001
3338 -0.36993516028798795 3.8746130635338534 1.9591910357242732 165 151 104 1.362843273826007 2 9963 3 9789 4 8067 5 7990 6 9259 7 11760
3339 -2.3105911412719258 3.7013767800228004 1.8965960095756069 173 162 132 0.84371017034889051 2 9465 3 9792 4 8098 5 8069
3340 -0.54832073688319238 3.8763860386014883 1.9275462632089124 206 193 158 0.98203027283945687 12 10120 3 9795 6 9268
3341 0.50648807749472247 4.0520541964536623 1.9497355428499845 202 195 170 1.3795284024392775 3 9801 40 9416 34 9722 41 7760
3342 -0.27518035217631576 3.9956402617837403 1.8942342385918438 198 185 143 0.92244313284472879 44 8406 3 9805 4 8073 6 8325
3343 -0.29211016540437407 4.0271833419663539 1.8998881939325487 175 162 120 1.8122328558876859 44 8411 3 9809 34 9669 40 9358 41 6909
3344 -1.0485897964598221 3.9835168790114821 1.8536375804256313 141 128 86 1.4973097801813615 12 10620 3 9812 13 5253 4 8603
3345 0.11911593892351005 4.1604925676761795 1.8650050357708321 151 137 103 1.4403092970294615 2 10019 3 9828 41 7753
3346 0.11911593892351005 4.1604925676761795 1.8650050357708321 151 137 103 1.4403092970294615 2 10020 3 9829 41 7754
3347 -1.6088721832416031 3.9992502529471006 1.8028036719022202 198 194 164 0.71403602205308114 12 10150 3 9831 4 8131 7 12315
3348 -1.6088721832416031 3.9992502529471006 1.8028036719022202 198 194 164 0.71403602205308114 12 10151 3 9832 4 8132 7 12316
3349 -1.2128172547392486 4.0417504150934871 1.8147223583007406 182 176 144 0.79068812964696245 23 10383 3 9833 4 8613 5 8057 13 3180
3350 0.079591710743418365 4.2417190417499429 1.8113047121235768 215 202 168 1.0022067730344273 44 8780 3 9849 4 8605 34 10208 5 8014
3351 -2.2553568491921308 4.06742474706921 1.730312424927033 186 174 148 2.2267155926467632 2 9998 3 9860 4 8652 5 8579 6 10348 13 4945 7 12599 34 9602 12 10644
3352 -2.0335795031396624 4.1197383038124435 1.7224982313491355 177 165 142 0.57913088876787266 12 10649 3 9867 4 8654 6 9994 7 12349 13 2949
3353 -1.941363623516702 4.1373355108292191 1.7213909074092093 142 129 95 0.86295020436602476 2 10012 3 9868 4 8656
3354 -0.76883134658627017 4.2633734263903476 1.7489123613940767 185 181 136 0.66559315417873977 23 9755 3 9869 4 8149
3355 -0.28263824859398728 4.3277564033907971 1.7544037890141393 188 175 141 1.216065210505056 44 8462 3 9876 4 8623 5 8044 33 9238
3356 -1.3354981078701167 4.2763464806376312 1.7043604487913959 188 178 153 1.054913984166675 23 9739 3 9879 4 8167 6 9371
3357 -2.1039855089714279 4.2634469858315081 1.6511770369694398 133 122 94 0.56345907724400546 2 9556 3 9893 4 8684 5 8600
3358 -0.92550817046451561 4.4514999497295573 1.6464448669788703 100 86 50 0.75154963453637869 23 9803 3 9901 4 8670 5 8088
3359 -0.92683854566000656 4.4510417005017944 1.6457329158643483 100 86 50 1.1742260155020965 23 9804 3 9902 4 8671 5 8089 40 9412 13 3231
3360 -0.1127133284998213 4.5418795465853528 1.6884312673503588 193 188 159 0.39361025542459621 2 9599 3 9904 4 8166
3362 -2.1747104770348109 4.4448551037880319 1.5670210959110573 114 105 79 1.0038309941449932 12 10230 3 9920 4 8723 5 8190 7 11968
3363 -0.015019403367372203 4.7854190759738078 1.6999476926141659 131 122 91 0.56595238930699432 2 9117 3 9955 4 8225
3364 -1.4464574502007936 4.6458990385072063 1.5278344071992673 181 176 152 1.1253519197559776 2 9626 12 9609 44 8114 3 9958 4 8731 5 7458 6 9463 34 6055
3365 -2.0555250978987791 4.600485046207778 1.5111123077710293 156 144 118 1.0127636940675111 23 9786 3 9961 4 8759 5 8649 6 10054
3366 0.27826514170993283 4.8302501074946855 1.7878799723239627 178 167 150 1.4070031459687613 2 9684 3 9962 4 8692
3367 -1.1825723771011412 4.7094752113916156 1.5307291148456774 160 154 130 1.0559435865893192 12 9636 3 9976 5 8157
3368 -1.2891223295206879 4.7049004793003215 1.5260321245922237 126 112 87 0.91480030738014939 12 9634 3 9979 5 8163 6 9460
3369 -2.0661233218900064 4.6516476133517024 1.4895614302369531 164 157 129 1.0104431617924012 12 9615 3 9990 4 8775 5 7559
3370 -1.8211945339134739 4.6746376247212815 1.4910184535232542 162 155 127 1.5449913836306401 2 9635 3 9991 5 8646 6 10041
3371 -1.2947395958162295 4.7286626184787357 1.5135263263773495 182 179 162 1.1618313806790632 2 9096 12 10274 3 9995 4 8745 5 8167
3372 -0.15488882894490763 4.8571207413564164 1.6978403002736258 93 84 55 0.89854072524408102 23 7128 3 10001 4 8716 2 9698 5 8118
3373 -1.6507407009501212 4.763601172869623 1.4660285503034225 161 152 119 1.2146253874892174 2 9678 3 10024 4 8779 5 8650
3374 -1.6305019356758057 5.0316771600717498 1.4640871990903339 135 129 113 1.3240025025213815 23 8880 3 10094 5 8698 6 9604
3375 -0.10038436753903873 1.7139721867769373 1.4045898137997948 238 234 170 0.59867241799024418 2 9777 3 10167 4 8430 5 8393
3376 -0.26319227318309485 1.8612210709675781 1.4503367909965601 208 198 127 1.2054356819815348 2 9780 44 8582 3 10177 4 7834 5 7793
3377 -2.4272616110755436 0.56697500418233071 3.301336399286281 187 175 149 1.8780566004492303 2 10158 3 10186 4 7888 5 7855
3379 -1.0962031536666628 2.7237095645341927 1.528985122796519 121 93 45 0.99428171716963587 2 9341 3 10240 4 8917 5 8830 6 10237
3380 -0.96193233845728932 2.7833777088677487 1.5681994891207427 126 101 47 1.0882094395761579 2 9890 44 8303 3 10244
3381 -1.9333185842633165 2.4254376311535664 2.4911976030587888 93 79 67 0.47628945764548353 2 9877 3 10265 4 8516
3382 -2.126564427973793 2.8169245050365617 2.2872645233495428 150 134 111 0.87620538877413912 44 8316 3 10277 4 8529
3383 0.72475403884233591 3.893279733324635 2.0275411892723785 192 180 142 0.31576080931836359 44 8736 4 8558
3384 0.65886706330718658 3.9054336714677409 2.0175694353627032 194 182 144 1.225885848758697 44 8738 3 10326 34 10175 40 10263 33 10184
3385 -0.86621491042612475 3.7830015136918043 1.9474232023521749 189 177 139 1.1389685566221899 44 8709 3 10331 6 9893 7 12518
3386 0.86821651652770204 4.0177485568019167 1.9865926184799678 187 188 148 1.4264074476986264 44 8932 3 10343 41 8550 38 6291 33 10381
3387 -1.2107550329936017 3.8335266696220307 1.9269493884828517 209 200 167 1.7684679855308232 44 8712 3 10344 4 8587
3388 0.26289405849701597 4.0760401797553234 1.9127357135211056 193 191 153 0.54968192130020399 3 10358 34 10184
3389 -2.1548249613856596 3.9707033755005159 1.7772580020893525 171 157 128 1.1498585147089975 3 10372 4 8633 5 8556 6 9984 7 12342 13 4970
3390 0.86211780478960764 4.3017228598657447 1.8655541692868309 178 171 145 1.3426880621306734 2 10048 3 10384 34 10253 38 5084
3392 0.73754795494130332 4.3168531224522564 1.8350722568321327 178 168 139 1.5408974055667144 44 8807 3 10391 40 10006
3394 -2.2235620036018524 4.0993504582366107 1.7171002576569763 134 120 91 2.1984104175457531 1 11421 3 10400 4 9031 5 8896 6 10350 13 6454
3395 -2.224086942554834 4.0991291080237895 1.7173758895168589 134 120 91 2.2102196872344138 1 11420 3 10401 4 9030 5 8897 6 10349
3396 -0.49969102904757806 4.3036832896672177 1.747902776082745 132 119 81 0.74619150101655096 2 10045 3 10405 4 8627
3397 -1.0785744936666912 4.2851646254723503 1.7132216924777612 185 181 144 1.1291284672059654 2 10042 3 10412 4 9023 34 10154 6 9951 7 12311
3398 -1.0785061263177471 4.2856014805628018 1.7206092129406405 185 181 144 0.70989363674555028 2 10043 3 10413 7 12310
3399 -1.8222177335605145 4.2294296664630089 1.6908705478173216 192 185 156 0.11572113152175363 2 9546 3 10417 4 8668
3400 -0.059497996119904528 4.4149949251971448 1.7403678570288639 199 198 174 1.4252839551293894 23 10498 3 10422 5 8045 33 9261
3401 -1.6584594688387455 4.3343018673855411 1.6488229073613083 127 116 84 1.1774515357261901 2 10052 3 10428 4 8679 13 5105
3403 -1.0814124204826538 4.5514292869292943 1.5928454786072579 150 142 106 0.82158219075981764 23 10487 3 10450 4 8691 34 9718 5 8582 41 6985
3404 -1.9444648748363933 4.5147117930188925 1.554763187563039 171 167 142 0.50505303298034032 2 9592 3 10457 4 8728 5 8631 7 11954
3405 -1.7000005133777221 4.5863012642645042 1.5543213156482134 166 165 144 1.2567538971251435 2 10076 3 10469 6 10026
3406 -0.24041322308471358 4.778974311074494 1.661323594718386 158 155 138 1.3818109090009307 2 10112 23 8884 3 10480 4 8700 5 8105
3407 -1.1019882502297014 4.7249357232526537 1.5363082455732255 177 172 152 0.5438402529359595 12 10748 3 10486 4 9078
3408 -0.18431977047215936 4.8386322791891851 1.6937176730623276 150 151 123 1.5686544664509687 2 9693 3 10488 4 8711 5 8577
3409 -1.9894150545413594 4.7027794065367567 1.4660434774972921 158 148 123 1.290632912122107 23 10481 3 10493 4 9100 2 10100 5 8937 6 10395
3410 -0.41391913274128039 4.8717282435293656 1.6582782284930575 162 151 131 1.393120048684604 23 8902 3 10495 4 8733 5 8594
3411 -0.34009461951602743 4.9186594250573892 1.6814881387396632 153 140 108 1.4896485928974614 12 8648 3 10504 4 8742 5 8601
3412 -1.0380854412071361 2.7283001560168136 1.5054099346005356 187 170 114 0.90717596519868837 2 9882 3 10628 4 8916 5 8829 6 10234
3413 1.2914680610376426 2.9764779153022252 1.7322577573467512 22 21 24 1.2002944446455885 2 10221 3 10633 4 8481 5 7848
3414 -1.4843420082448411 3.1318674973141407 2.2027807170408629 183 171 133 1.0101981731636525 12 11073 3 10664 4 8947 7 12707
3415 0.3504750415140051 4.1452431170443855 1.9098899750321665 168 154 126 1.1547015536159313 2 10293 23 10938 41 8242
3416 -1.4278569669163603 4.0881256392054413 1.7767213716415915 186 180 148 1.0185376712284415 3 10709 4 9003 34 10123 6 10311 13 6576
3417 -0.37228768631184955 4.1920689974179943 1.8011453933890804 185 173 135 0.35553130612101858 2 10450 3 10711 4 8990 5 8861
3418 -2.1911786266368227 4.0911748907081193 1.717486288921573 143 131 91 1.0085935525907055 2 10287 3 10714 4 9029 34 10108 23 10856
3419 -1.5521972187603787 4.1740486617219039 1.7259566751017199 183 176 150 0.89512508765889809 12 10934 3 10720 4 9022 13 6566
3421 -1.0323884051908705 4.46881753283433 1.6295607879648628 137 115 76 1.7297835367326651 44 8954 34 10178 5 8885 40 9949
3422 -1.2968448776871044 4.5550758546985151 1.5781159846230415 168 162 128 1.7533998579530461 44 8813 3 10757 13 5169
3423 -1.3339903975562319 4.5619503722307631 1.5714709336246457 174 174 138 1.0486768757239247 23 10967 3 10760 4 9215 5 8905
3424 0.19803996956883457 4.7848741249482067 1.7504727831635365 165 154 124 0.5927672584101078 2 10110 3 10765 4 9044
3425 -1.8533184109685401 4.677739577724001 1.4892823393157326 156 149 121 0.67050010474136534 23 10482 3 10773 4 9230
3426 -0.028651297318584956 4.8708305867892392 1.7292733042624424 156 146 121 1.3060570824781197 2 10123 3 10774 4 9217 5 8893
3427 -0.65136603652855185 1.3161119497858829 1.3382154874732686 0 0 0 1.9528902445452783 2 10491 23 11378 3 10823 34 10737
3428 1.3563147179327646 3.4697485598917814 2.2642530858129555 199 202 175 0.18577931793037564 2 10532 44 9080 3 10878
3429 -1.2212745917922396 3.2839284285308663 2.1373389099109259 102 88 59 1.5391575975972369 2 10430 3 10880 7 12812
3430 -2.403813376703765 3.5100881904451788 1.9633686241660262 161 150 120 1.4109659283699953 23 11325 3 10886 7 12898 5 9170
3431 -1.2538240216462226 3.7912687206193301 1.9184754232357053 156 147 108 0.71955543245225684 12 11090 3 10892 4 9171 6 10509
3432 -2.112022304126389 4.2172115026925212 1.6713056297314985 162 152 127 1.3187065982930593 12 10939 3 10901 4 9198 7 12753 6 10548 13 6479
3433 -1.5211587166215588 4.8092363770283244 1.4732332093230931 160 157 138 1.2367766320253797 23 11227 3 10984 4 9377
3434 -2.0425002252890265 1.6070284826181092 2.5157676728692802 136 136 145 1.5675417418806763 2 8466 44 6859 3 7245 12 9046 23 7914 1 10667 4 5628 7 11605 1 9851 8 10781 28 12594 35 10772
3435 -0.48930789785694401 4.419545361834408 1.6866463440337369 166 154 119 0.69874140613525337 3 10736 12 10702 44 8805 4 9025 6 10299
3436 -0.76981967560341591 2.7088080370913086 1.8396248010318326 165 193 231 1.5252784461918403 2 1753 3 1364
3437 0.93896646449055798 4.6792253500780312 1.844630722215914 116 106 81 0.76673090526756982 2 10093 3 10443
3438 0.18904487926870969 3.7357372196358525 1.7335920212152203 220 220 160 2.03762493070177 2 10593 3 11087
3439 0.43845899673032862 1.8715274989575674 1.7779124134246591 250 241 167 1.6168263101163751 2 10642 3 11127
3440 0.74839396277123504 3.0565698530992345 1.9773536828349862 224 227 162 1.0882492020854655 2 10651 3 11144
3441 -0.63499802447666776 1.93899576886437 1.4341498726995765 222 202 131 0.64866412012236496 3 483 4 144 5 164
3442 -0.56525825139816255 2.0979338426607437 1.5809943477451676 189 171 99 0.42184508099264856 3 4665 4 258 5 242
3443 -1.1344661466572967 2.640923793115177 1.4126872870391705 175 152 82 0.6540764153925317 3 1182 4 460 5 442
3444 -0.92567158410751249 2.7080237282183486 1.4478533012551174 251 224 143 0.44374369416968568 3 1235 4 502 5 462
3445 -2.0784637946908027 1.764710551184373 2.4423594057045346 184 190 222 0.1474644928324024 3 1096 4 539 5 590
3446 1.2531262593841068 3.0540898801595104 1.8255368476419742 143 150 169 0.52187985017221661 44 1505 4 646 5 511
3447 -1.9513209406673122 2.7491067283421406 2.3300763624553973 119 104 73 0.71165726670135843 3 1624 4 1061 6 1442
3448 -1.2114477396879502 3.0711176130467144 2.239191677748281 98 83 50 0.81580808566466356 3 1763 4 1141 5 1143 6 1402
3449 -2.6096702966244547 2.8410414240117507 2.2463704270787344 159 151 114 0.76859657673852666 3 1705 4 1172 5 1242 6 1696
3450 -1.5770236941710918 3.2129862135945699 2.1537017501224232 208 195 153 0.46049189451867406 3 1900 4 1277 5 1229
3451 -1.4850161444406647 3.5833310405665988 1.9935939680794801 207 192 149 0.41995374699533761 3 2201 4 1545 5 1403
3452 -0.83390207168027763 3.7291470844129622 1.9793546011797964 176 159 115 0.35731612267491369 3 2290 4 1552 7 3489
3453 0.47611556182679798 4.1594591485631112 1.8902640605454923 124 111 76 0.70052997479285317 3 2660 4 1694 34 3398
3454 -0.9748761214753825 4.0677858481548599 1.815028440269479 211 199 157 0.17196388789278702 3 2721 4 1967 5 1617
3455 -0.81910241497065028 4.103300162923718 1.8039126181711469 113 103 52 0.5288953515391136 3 2751 4 1968 5 1594
3457 -0.29178374787899447 4.2795007164893342 1.7676603891214497 197 182 141 0.3929269159802411 3 2935 4 2046 5 1567
3458 0.069484472497641114 4.3975318437431179 1.7522256924830277 158 148 121 1.0912815341606941 44 4933 4 2102
3459 -0.51274479617141311 4.2969688925999598 1.748278243065245 115 103 64 0.036942427518366593 2 3260 4 2140
3460 -1.9335689964557938 3.9888953283963033 1.7864850411099542 192 179 137 0.719389887598753 3 2735 4 2147 5 1976 6 2453
3461 -0.11481086603798146 4.4017847079757937 1.7389050050373296 157 148 117 0.62034672382323663 23 3927 44 2737 4 2171
3462 -2.2337805001231144 3.9484728236785265 1.7831716555699233 157 139 101 0.43716189594810334 3 2722 4 2204 6 2612
3463 -1.4563372782506949 4.1426401755721711 1.7499385110454095 207 192 163 0.44569120266698664 3 2885 4 2248 6 2302
3464 -1.3527988083042328 4.1844178782916845 1.7381482119089866 128 110 72 0.13440304463249039 3 2942 4 2278 5 1920 6 2292
3465 -0.20303048426000425 4.4454442029167209 1.7135466181304344 210 197 182 1.6024364881569164 23 3953 4 2283 34 3461
3466 -0.88193953997785735 4.3167673276981766 1.7072132319840903 179 164 121 0.22810908138078845 3 3078 4 2325 5 1839
3467 -1.0349751862711425 4.381435225355407 1.6721884257365536 190 175 136 0.50613402988118505 2 3430 4 2523 5 2016
3468 -1.8437746918196931 4.2001095173476184 1.6985490908204754 97 80 36 0.14264074501479129 3 6091 4 2524
3469 -2.0217688803338696 4.4953185822164619 1.5574702020390567 159 145 106 0.41454495466512564 2 6322 3 3595 4 3035 5 4994
3470 0.48306027938031448 -7.0983060634620028 5.8115966950543188 134 131 246 0.67308994536802091 3 6843 4 3183 5 3158
3471 -0.59723178987969661 1.2892266312657965 1.3482003891929728 175 196 218 0.67705726793993881 3 6932 4 3213 5 3202
3472 -0.65559265825876678 1.9001220501912224 1.4188367525445915 191 173 101 1.6780378066511763 3 4428 4 3289 5 3254 6 230
3473 -0.5928364479397108 1.9722597389362249 1.4714814926472422 180 152 79 0.51985062189052178 3 4502 4 3317 5 181
3474 -1.021458135574653 1.9343715495814766 1.4793713632064178 207 174 93 0.64739596359630103 3 4518 4 3324 7 6694
3475 -1.3123067453348427 1.8357720923841518 1.6006504898709037 118 130 110 0.95894019091853311 44 654 4 3340
3476 -0.4882938944215533 2.0392213623071194 1.5533278408900535 222 198 136 1.5110660830322031 3 4603 4 3348 5 213 6 3898
3477 0.091111405224062303 2.7865218571249395 1.436220683628554 171 118 147 0.64467434880970387 2 8595 3 7306 4 3485 5 368
3478 -2.5198051019134025 0.86415063608719866 3.1266153507462326 113 97 71 0.36948814112154543 3 4746 4 3487 6 4263
3479 1.3653985961143078 2.9556544986513487 1.73624664196557 21 39 76 0.61436653091846694 3 7358 4 3561 5 433
3480 -0.93763884437612321 2.7628774289876055 1.5015369054272871 229 206 128 0.40681226690745564 3 1298 4 3563 5 516
3481 -2.2014114680267398 1.7991766229415769 2.4359058145011745 231 233 248 0.6638143933821109 3 4974 4 3570 5 3627 6 4335
3482 -2.2256321415281688 1.8055481113514618 2.4302446918759766 87 60 76 0.51515827079237231 3 4980 4 3573 5 3630
3483 -1.1014901545561333 2.7500362960794136 1.56771992052845 204 186 120 1.0167529317665382 3 5096 4 3595 6 812
3484 -2.2395205917102254 1.9253982593138128 2.3731988746703738 237 227 250 0.48921889879012997 3 5008 4 3599 5 3665 6 4366
3485 -0.35742858984236497 3.0969107277740049 1.3236286456143225 149 33 36 0.15960679918725404 3 5161 4 3613 5 521
3486 1.3605045014045181 3.0405501008163487 1.840145841766017 21 31 53 0.28512525315610687 3 7403 4 3627 5 502
3487 -1.0654914455618589 2.8053952497082904 1.6047507280465447 192 172 115 0.39962918792057195 3 1367 4 3632 5 3612
3488 -0.98230033728182042 2.8338276863285179 1.6668278601140019 177 159 107 0.63279153264464982 3 5148 4 3663 5 3639 6 917
3489 -0.48173048182943529 3.2461249910133096 1.3424192084726472 212 184 119 0.5570261712358443 3 5264 4 3710 5 642
3490 -0.58461436365118491 3.2067371046096089 1.4050330315391752 147 114 80 0.81802223853772205 3 5263 4 3722 5 3657
3491 -0.52421731156012918 3.3308797546908551 1.368993971998655 167 141 80 1.701996701152807 3 1654 4 3777 6 965
3492 1.6931266679702419 2.9738391041990337 2.5119754757206012 149 136 101 1.1801792982915009 3 7459 4 3781 5 703 21 6360
3493 1.6658332179705697 3.0061636715477884 2.4945595447782902 191 178 143 1.0865486413569965 3 7465 4 3794 5 723 42 7198 21 6346
3494 0.41200473039268171 3.412954997318423 1.7085155494364828 184 149 81 0.35531697946198731 3 5375 4 3856 5 3744
3495 -0.42564852542819859 3.5955370917781448 1.3667382618780863 193 184 125 0.51436496275624022 3 5487 4 3925 5 3815
3496 -2.3766178238910518 2.896467482139681 2.2425786717706719 127 117 81 0.30998381222882748 3 5360 4 3994 5 3989
3497 0.33892543694254484 3.7640037405970372 1.7339759082723478 141 137 86 0.29774784441490654 3 5614 4 4041 5 3912 6 1199
3498 0.22686296021764879 3.8029371930637552 1.7424322655027455 233 228 172 0.31418956347520166 3 2181 4 4072 5 1115
3499 -1.1923683725444434 3.3740346068557461 2.1158034768910157 147 132 91 0.41837519811072654 3 2014 12 6040 4 4094 5 1237 7 7324
3500 -2.326977357690184 3.1574984478318129 2.1331728831992094 116 102 63 0.2261259855152693 3 5490 4 4098 5 4082
3502 0.42338111562732872 3.8407819205281188 2.0225748500053453 169 152 106 1.2738495417181985 3 5679 4 4136 33 7505 6 1333
3503 -2.0799985160400976 3.3197257891068279 2.0765449101175699 201 192 153 0.53604037610496325 1 8891 4 4137 5 4107
3504 -0.93499284495875457 3.5906323367752448 2.0356415369281078 151 134 104 0.65423248773896214 3 2168 4 4156 6 1581
3505 -2.3044787281372634 3.388892604082578 2.0249982501729824 184 169 126 0.82570346195162303 3 5599 4 4202 5 4179 7 11080
3506 -0.54163730747176464 3.7687986784107306 1.9847377691214447 90 72 23 0.22298454501507634 3 2302 4 4209 5 1309
3507 -0.54163730747176464 3.7687986784107306 1.9847377691214447 90 72 23 0.22298454501507634 3 2301 4 4210 5 1308
3508 -0.46534948234583556 3.8439411361881133 1.9495766014744047 175 163 121 0.99289090887948361 3 5722 4 4240 5 1333
3509 -2.0329765271982554 3.5381326485401412 1.9802094458543278 203 195 149 0.44598204256677071 3 5649 4 4256 5 4213
3510 -1.2552563246201169 3.7842230031934925 1.9242429721824541 196 182 137 0.60504775678876455 3 5733 4 4314 5 4175
3512 -0.61558385322962739 4.0159930001734727 1.8662159066406543 219 203 151 0.39271131944861576 2 5902 4 4366 5 1468 6 1761
3513 -1.3602989302528166 3.911430860045646 1.8558964540382132 176 169 127 0.22131731860521178 2 7695 4 4403 7 9799
3514 0.24679491858825184 4.276764353553312 1.821993450629728 159 146 113 0.80369720520022947 23 6795 4 4410 40 3464
3515 -0.51514519830394478 4.1419601823978072 1.817911437376917 135 123 75 0.37372666133133697 2 5992 4 4429 6 1834
3517 -1.8944555524557687 3.9402297643743833 1.8156839299804346 212 197 157 0.64262832167644002 3 5889 44 4356 4 4521
3518 -0.52647367280112856 4.2582520964800477 1.7704746430372733 210 196 170 0.82865258745867565 2 6103 4 4529 5 1633 33 5425
3520 -1.4104029759883221 4.1230230178168936 1.7652171440404172 109 95 60 0.43551539230253705 44 2234 4 4591 5 1865
3521 -0.90935584594548091 4.2402253426901693 1.7462231668753418 206 193 158 0.2959718134501555 23 3612 4 4597 6 5026
3523 -1.696023030443667 4.0894438608841126 1.7622239355727674 185 172 124 0.83193401317959859 2 5953 3 2842 4 4619
3524 -1.7596308679133532 4.0807369494999479 1.7550930059384973 98 89 34 0.40211043156924048 3 5974 4 4630 7 9922 6 5238
3525 -1.9151368027915059 4.0562045998521263 1.7589399748610139 92 77 36 0.66177783608326546 3 7877 4 4648 5 4504
3526 -1.114336917322305 4.2675710503455315 1.7247297615597472 190 178 140 0.52542797054784596 3 6092 44 2444 4 4686
3527 -0.87817337822039065 4.327033906702181 1.7048049525962727 134 119 76 0.6062253078585752 3 6122 4 4692 5 1848
3528 -1.4424141243091486 4.2045113351812047 1.7229014248580319 89 82 38 0.52081910066196491 2 6048 4 4696 5 4476 6 5200
3529 -1.9104999104118419 4.1077420131670364 1.7336308654433807 150 140 104 0.5110725769179193 3 6021 4 4707 5 6262
3530 -1.7051721425563338 4.156043440195238 1.729446931840589 114 102 62 0.21314476242788535 2 3029 4 4713 5 2081 6 5269
3531 -1.4649238827515005 4.2078259051960289 1.7251433089681847 98 91 45 0.28589509410911301 3 2988 4 4714 5 4491
3532 -0.59537398353167204 4.4142572506774735 1.6882867135626314 186 177 145 0.56003637222335279 3 3188 4 4732 5 1818
3533 -1.6224058868407008 4.1877575968192584 1.7115822061681754 222 211 181 0.18441731193030445 3 2980 4 4739 5 2074
3534 -1.9240889171166151 4.1183170126685091 1.734835566238689 191 176 135 0.46183661785541535 3 2912 4 4744 5 4556
3535 -1.1019736385308496 4.3180234554670189 1.6973572835520179 112 100 60 0.70990018145921385 2 3306 23 3650 4 4752 5 1973
3536 -0.93043553867028983 4.3841289534904364 1.6784588892683778 121 107 72 0.35922176812719803 3 3196 4 4791 6 5134
3537 -1.2290877283316408 4.3567885625013227 1.6714473709049658 121 108 76 0.18345062931187214 12 6657 4 4830 6 5224
3538 -2.1203501682294905 4.1731901240915246 1.6916979871086411 107 92 51 0.29351140460758002 3 6085 4 4852 6 7373
3539 -0.74333722444429773 4.5149312136054762 1.6316621836519209 188 179 140 0.5530028956659524 2 6354 3 6315 4 4887
3540 -1.666620706224849 4.3316132278815385 1.6487880367348331 115 100 64 0.10214491938275455 12 6637 4 4930 6 7307
3541 -1.3985543986247249 4.3938315551916123 1.6292228652900473 194 189 159 1.000367201858628 3 3290 4 4931 5 2228
3542 -1.3128966632484105 4.4197694065067941 1.63528090484178 192 178 141 0.89138691764238787 44 4840 4 4937 5 4610 34 3124
3543 -1.4768089359875689 4.4263204166857983 1.617259429100635 136 126 91 0.35214960972080894 3 6292 4 4985 5 4679
3544 -1.4133595341469067 4.4744287487066732 1.6027659546386821 194 185 154 0.60020209450969886 3 3454 4 5025 5 2371
3545 -1.5821900712826393 4.4527491393790548 1.600982439414828 203 197 171 0.86347540986329907 3 3443 4 5050 5 2431
3546 -1.1896011049920603 4.5626624065949448 1.5769778920862672 173 169 132 1.4024756275682642 12 4057 4 5080 5 2363
3547 -1.3404271368239744 4.5864530479005969 1.5600128297402778 144 136 99 0.36149793361246746 3 3657 4 5147 5 2481
3548 -0.37337033976878614 4.8041175676200929 1.6436118526459838 179 169 142 0.91558765879885762 3 6573 4 5157 5 4651
3549 -1.9683069853198092 4.4658661491184519 1.5691938044320597 173 164 125 0.15456156725732287 12 6758 4 5180 6 5752
3550 -1.9346364542236738 4.4802787125713079 1.5720800370982884 155 136 96 0.67826504006180954 12 3999 4 5191 5 2680
3551 -2.0862194971915984 4.5084335485349909 1.545708109742072 156 143 104 1.6099569749382585 3 6424 12 4023 4 5252 5 2804 6 3305 5 2816 7 8340
3552 -0.016661441646833502 -7.1431917288188131 5.7261394580027449 107 93 201 0.56481440557663198 3 8460 4 5404 5 5424
3553 0.73240554268855407 -7.0694781441699366 5.7984973966810793 127 128 221 0.94881122275291707 3 8478 4 5412 5 5429 6 7984
3554 -1.205640133022333 1.6875208363971721 1.4842153004784873 153 157 123 0.20794017657030711 3 4381 4 5461
3555 -1.0046681483497035 2.104545792490264 1.5764872704863928 195 154 72 0.39476362757340033 3 4710 4 5533 5 3326
3557 0.47854016548353312 2.7385962721300494 1.5775537139916294 248 213 207 0.17054622435978739 3 8721 4 5604 43 9702 11 3116
3558 -0.83620465094218299 2.673227957319718 1.4679375430100527 206 203 130 0.8274599532706608 3 5026 4 5617 5 3480
3559 -2.0256655627398299 1.4010247372271514 2.6931908563457525 52 38 62 2.5361065707994825 3 987 5 5677
3560 -2.7073547394066462 1.288201165010707 2.9250412446283489 189 174 143 0.80092917771699168 2 8445 3 7257 4 5641
3561 -1.2759332510458099 2.6966802434044221 1.5319291084010067 205 192 148 1.0622068615797617 3 5077 4 5647 5 7022 6 6573
3562 0.4112956641519584 3.0217255575984949 1.5145677968139173 216 90 91 0.24838555430555806 3 7377 4 5656 6 4121
3563 1.2101997798790058 2.9969718210943959 1.7809287474454094 1 13 27 0.49381670086745455 3 5143 4 5663 6 619
3564 -1.0616342904489435 2.77537291102001 1.589399195264835 194 178 118 1.0268688458924482 3 5105 4 5669 5 5701 6 6584
3565 -2.2675355964840977 2.0244120976014153 2.3271863703979201 231 238 249 0.57376949805325694 3 7313 4 5673 5 5755 6 6662
3566 1.2745026490716087 3.0322850266756087 1.8242465717819243 5 23 20 0.47755434017656384 4 5675 5 3526
3567 -0.97543780976034178 2.8329840283728478 1.6379921163425843 122 110 49 0.96818821071279437 3 5139 4 5691 5 5722
3568 -0.89035390091138034 2.8566748042456198 1.651086317284636 31 11 7 1.2977468999055477 3 7387 4 5692 5 5724 6 8182
3569 0.26934971631587951 3.2227377420890093 1.6305091086516144 180 142 58 0.47325191174395936 3 5271 4 5726 5 3638
3570 1.5384444565138518 3.0393610406440543 2.4782422693685136 122 108 73 1.4688466967418243 3 7475 4 5775 40 9850 42 7659 38 6443 43 11129 11 7007
3571 -0.49767636019054967 3.4336697132763625 1.3309428620335348 232 211 148 0.41989609637576636 3 7518 4 5784 5 3741
3572 0.30501669088923439 3.3471379294989183 1.7150328000208301 172 127 60 0.34347904805528501 3 7507 4 5789 5 5768
3573 0.33413823680459942 3.3776976749766048 1.7178262683795102 185 145 76 0.43681070339026618 3 7523 4 5798 5 3742
3574 -0.41894285849511387 3.533401581560315 1.3241927463546885 187 170 100 0.67204303810407096 3 7553 4 5818 5 3777
3575 0.58952936114318877 3.4806897691046332 1.7630779744881924 220 213 159 0.58898312650015716 3 7554 4 5821 5 3774
3576 -0.50334833382542032 3.5598296764246742 1.3785695159872511 134 116 52 0.89444784766447771 3 7570 4 5832 5 5814
3577 -0.45314447685346609 3.5995408946080723 1.3883193708536299 189 180 125 0.61462086599164778 3 5500 4 5840 5 5824
3578 1.1642543363835931 3.5705851915988034 2.2174841009056632 174 166 129 1.1933594784693964 2 8725 4 5866 41 7700
3580 0.13712780561471977 3.66261619742192 1.7014737214276328 229 212 132 0.58316165727213887 3 7614 4 5872 5 3885
3581 0.11128800842088597 3.6891987359221439 1.733473400693649 157 114 44 0.42751595774919965 3 5578 4 5886 5 5873 6 4484
3583 -2.2865911750550953 2.9916339624407584 2.2089089988220119 199 185 148 0.36207211554802315 12 8021 4 5891 7 11771 3 7539
3584 0.25053260704983976 3.7415066315540013 1.7263515893090922 254 252 194 0.54788147310441737 3 5606 4 5892 6 4475
3585 -2.5011889226639732 3.2316209566046088 2.1020875084432808 199 187 147 0.61429142466142495 3 7592 4 5956 5 6014
3586 -0.54829480226805449 3.7293254130364804 2.0055876189739474 112 92 53 0.94754467899856942 3 7688 4 5977 5 5959 7 10965 8 9081
3587 -0.45456599096027112 3.7612884747239987 1.9873282614338146 153 139 90 0.39717586348088724 3 8985 4 5978 5 5958 6 8316
3588 -1.3859164754114861 3.6644412546450469 1.9504495448909711 195 181 135 0.57181847045617729 3 7690 4 6003 5 6005
3589 -0.78094235623606756 3.8175148812936071 1.9462336197168386 164 151 107 0.61819772440916032 3 7721 4 6013 6 4764 44 4326
3590 -1.4274168452496845 3.6822830836003844 1.9538456255661454 146 131 87 0.65063496657158548 3 5686 4 6014 5 4147
